ply
format ascii 1.0
element vertex 840
property double x
property double y
property double z
end_header
49.801939165510341 11.134772717106681 7.394105472787684
54.987314950385240 -12.594076596983431 -8.352990870711999
45.934490371672368 14.215377067320370 10.156105029194306
45.930739543751407 13.665140517286876 10.502412392098515
46.510591025587715 13.639789570021314 10.017336273076065
47.297912705921078 13.026836240088009 9.705436378927597
47.949728123678355 12.373938136286629 9.333727161899690
48.470665072453713 11.773660759043041 9.023206156354647
48.926244047660326 11.120409419546489 8.634990201095876
49.492439143437082 10.552603489702037 8.223915676688994
50.188731756874326 9.989014217298704 7.817477635896341
55.016322333724801 -13.061549998083464 -8.017438563605811
55.357464036554958 -13.332167793597280 -7.392351545275171
54.160503592973988 -13.797114541678829 -8.589176346216316
46.222033561986187 13.115354125145458 10.589796684096685
46.243179055835569 12.516802083355067 10.921500886254883
46.823621684650647 12.482124860314517 10.463784622755661
47.581934308013246 11.860659306166589 10.090787440472850
48.225395776101259 11.202719950143184 9.742798333377257
48.803859589045800 10.529697409933810 9.400330275841826
49.206583092595871 9.892477742041866 9.056013960840815
49.804950040974319 9.301756995201160 8.638288725342136
50.493913627527164 8.709306309444088 8.197194215742330
55.598845416980964 -13.776799566873187 -6.697398238723537
54.461318235509566 -14.260540093820239 -7.966268539563945
46.522266645860746 11.928282835048190 11.013456279958337
46.484219727272318 11.265385382842775 11.397518327032804
47.102843479840402 11.266381342950849 10.857596764219243
47.833817824707509 10.652323557123497 10.508402701720430
48.490680916581447 9.960598645891940 10.129231332602236
48.970088992453057 9.313144994612156 9.765630241429331
49.500886770810887 8.693693433564997 9.404497822205862
50.070113582731601 8.075508422422839 8.978145481276339
50.778970605717234 7.445000294126329 8.444149405557521
51.356101060370626 6.619367862540643 8.172369959065403
55.808185857767505 -14.255656354123868 -5.974964424467995
54.607118606210626 -14.904126519314282 -7.314328439520146
46.758774494147190 10.645927506230697 11.464133146284222
46.716330604580996 10.092487973246961 11.740740951733969
47.266790582017066 10.111126527254296 11.278434246909416
47.997119913434702 9.449611528372287 10.866088180480279
48.590379122435380 8.780583824804101 10.533763736118317
49.152305107462844 8.124331629574016 10.164707077402809
49.661666988400519 7.461108124905353 9.819490857603023
50.232522869574687 6.803478555951373 9.341741850072282
50.868184932979197 6.124665293920562 8.863295704842077
51.538061987517409 5.461120692086940 8.313514061178072
52.064950530472679 4.635184541080716 7.946976640190293
55.938237277210384 -14.689164906453611 -5.285848507924682
55.022898854911766 -15.303694021476980 -6.357697932618743
46.935506545685449 9.530266202799494 11.777965712674714
46.901625785032579 8.850807538769676 12.027260870814684
47.434175864732602 9.058505654405536 11.533480367567000
48.018769649662318 8.280105093168377 11.302567594589062
48.689884686105557 7.616250776667504 10.907502996432781
49.212131211053787 6.926000756287412 10.531365115050180
49.727728575685163 6.214786777722519 10.178028948969970
50.308485764528371 5.504945080497741 9.712536207518593
50.912194407526549 4.834816650383726 9.209465573770336
51.541140853384547 4.118867376225013 8.713254208407415
52.182920830854698 3.505826944198275 8.128962703592311
55.994481811921581 -15.167073303013190 -4.615202183432874
55.195315000778841 -15.749124747246858 -5.633255814293761
47.290527218532112 8.193031280013205 11.940507559629152
47.642985439869179 7.585189291668107 11.887584301808337
47.570890443061863 6.882761908111826 12.097924734104417
48.095007383153408 7.178035182302168 11.589623179183855
48.610527630763059 6.356855706447160 11.341240409994066
49.239770985890395 5.658505100205333 10.898973204333515
49.835598958403580 4.936455770819846 10.531187070160403
50.350162373000607 4.222613351039316 10.112678911243535
50.955398907762643 3.507907002011171 9.539166841772328
51.583058712477929 2.838179332439816 8.941455882816850
52.288995076706158 2.184806247900981 8.372986706836423
52.892642629747463 1.279602707223503 8.041432397188458
55.980047331310431 -15.684650956432240 -3.883878667545154
55.270972899851422 -16.221165661579047 -4.882048798779861
47.903349438129062 6.278979359164595 12.008519098658212
48.236433999860886 5.611998770759485 11.884548809601167
48.176617425002398 4.902574862848416 12.114143702030393
48.704753077972562 5.199897136133654 11.552135980173283
49.211144695489480 4.363873591294045 11.352752733696214
49.870438465945455 3.694566316931861 10.868232265742126
50.368655140371608 2.944880411497424 10.408481272104229
50.917421868430012 2.204395818767005 9.953506293142983
51.590544599158285 1.515349181109074 9.276236556536468
52.209376193686005 0.797436178587581 8.823603216870088
52.953430761722373 0.169940066884218 8.287323583640685
56.235405199408191 -15.644972596302793 -2.927351367196727
55.695156084353997 -16.399361031917525 -3.507751847947094
55.198599151561545 -16.792364405085507 -4.258811563902947
48.528425701315868 4.275303778079383 11.975017601964222
48.843060271977237 3.620636494922394 11.803776271600746
48.690566959288184 2.832896661584354 11.966722461612644
49.258159135154784 3.233195101234811 11.504920422687754
49.716604300285027 2.515653385162608 11.183042388969437
50.199373390013641 1.597025286834459 10.839813414648578
50.828913867907126 0.926673682924494 10.193749765418737
51.478853373845965 0.200505098945073 9.677593100410178
52.154940774839254 -0.501393674198729 9.107049698791442
52.966565641205534 -1.174953566445379 8.542885686134817
53.509598483070832 -2.066616611759921 8.123983270124477
56.162243525484278 -16.013641292500765 -2.060191148844495
55.687153722443334 -16.660250327981451 -2.862301729790033
55.101070667749838 -17.267311967139552 -3.671052829707684
49.054052757257736 2.193075300440268 11.786055390423854
49.420416735455845 1.431652229454970 11.514197424798377
49.742823005376934 0.767603422617859 11.298882840301779
49.611349362527015 0.011874971563640 11.439821665145438
50.129318036075496 0.374657526352708 10.987716735904154
50.624018983094928 -0.321231816195923 10.496652026301089
51.161100633093653 -1.226360094578779 10.061268819273751
51.979948722962497 -1.862549343365563 9.483948937765506
52.764450621810880 -2.578422921657763 8.883521393114659
53.509066485228828 -3.183371450188733 8.291137847485995
56.091665150905094 -16.291314574287835 -1.260740936579659
55.594236743513356 -17.046440196294697 -2.049711507261102
55.077439034690585 -17.653127340508423 -2.948384070628029
49.837960024801532 -0.652453926665011 11.165688402255153
50.251776839009572 -1.436384848503532 10.855191650768711
50.554817389332278 -2.109264245380342 10.607791446015392
50.381829472547103 -2.789532874094518 10.747847897917381
51.032028960553021 -2.461623853514787 10.153751955896496
51.634656188655264 -3.299912197049003 9.784795555257642
52.562522948768425 -3.921124675673292 9.190102595676567
53.449167727578754 -4.566383486162218 8.551140170488896
53.966740014740850 -5.452537341135273 8.050141618052123
56.076081996670510 -16.370472588841597 -0.332795307514853
55.653113346125458 -17.134796381840058 -1.109736259682891
55.245261062323266 -17.726575683118813 -1.679383379999246
55.038652518307622 -17.943839609601174 -2.289584502917845
50.740240023949177 -3.447827020280136 10.517024221300259
51.068888026310255 -4.091707289511181 10.218023482663851
50.920225628668064 -4.865702455496585 10.353028398216798
51.597707192092976 -4.480302136957969 9.855744420780157
52.269261266558409 -5.299315735775406 9.452886443306520
53.152309405010470 -5.946553920588733 8.821404683708876
53.881676756598530 -6.692728736253535 8.121391514569861
54.352089370652457 -7.512458492170186 7.576100135210456
55.824155803913371 -16.706140413647173 0.617837549588797
55.516909777583237 -17.431775237091777 -0.251352539310459
55.112545426654698 -18.060628360525619 -1.078377574275204
51.194922252550242 -5.517203680789917 10.131563162968106
51.565524652986269 -6.172883369356340 9.917678215120596
51.357231117703208 -6.846752208823560 10.071825378606857
52.111509547954881 -6.697601662189793 9.556592994196434
52.955703430377838 -7.314976515081656 8.918498318773782
53.598692654679056 -8.035975178400088 8.354049639790526
54.232161258039930 -8.773909015149716 7.592394278532113
54.602806567757632 -9.558714323596313 7.156193416085187
55.731081925799046 -15.961103292560351 2.367871776120900
55.752476251081717 -16.588568073180600 1.524642084339962
55.518371324004633 -17.208710355107289 1.092536409460446
55.287031047346488 -17.789041788748335 0.589466152597262
54.915530875744267 -18.414938250429479 -0.277611244548241
51.566086204671642 -7.418048236630993 9.950187505108222
51.316732376802058 -8.161468505557199 10.126027346818658
52.058483460465055 -7.818828701642906 9.617680755163384
52.620637332126861 -8.650176966436788 9.142717972361904
53.337573316888971 -9.360564278541210 8.491207590554618
53.913237116309254 -10.089697321348181 7.822544195327948
54.412582013743140 -10.748432422427509 7.143403272673287
54.726774732863724 -11.595847779010130 6.623077505053291
54.984058845930385 -12.253093519762714 6.107672592005608
55.198329333329674 -13.748063504624263 5.101250511092999
55.325595981690348 -14.375083563549602 4.447403932090136
55.372388559797585 -15.014291328087138 3.864887721238369
55.446607740731750 -15.767238426445092 3.208115550614980
55.247330845156135 -16.647635869926926 2.816796599766546
55.274827190038891 -17.058312239499287 2.231578378914946
55.193382471156632 -17.664047892042465 1.487330388048128
54.880297151026539 -18.405138182713269 0.996833779554144
54.758046658406037 -18.664792257164368 0.433691733544826
51.672464574929975 -8.799087271651141 9.891584238641743
52.006745024525458 -9.477393039819857 9.594228224543262
51.830308144207557 -10.195275132467728 9.633066203009252
52.500864230224536 -9.876450771031585 9.177149045612703
52.975934223386680 -10.630637018550448 8.629128271932238
53.570503935427048 -11.283390299303711 7.940054752963984
53.991655121734745 -11.976065186764234 7.318966309854820
54.320456342964363 -12.675089247540196 6.751840481900778
54.723141310583586 -13.375469670299042 5.954774822772458
54.557722905482379 -14.358935111053176 5.660065825688250
54.757606248692611 -14.808476246151510 5.090953745232035
54.916224056483557 -15.272586465274465 4.489819567019778
54.758662273615357 -16.127899361319141 4.131433390714908
54.846503738036873 -16.871990432151968 3.414066665148392
54.831463747697576 -17.471701526295700 2.826185913927619
54.790701631711840 -18.002573441324365 2.223536839374290
54.558974620050655 -18.687845577973700 1.594264022062562
52.086362572173122 -10.809736763960275 9.373863117209231
52.348358269296632 -11.451651576788743 9.088260310133695
52.079061753122915 -12.151249193076652 9.142530283076928
52.776150823961302 -11.803519487736994 8.610235099194187
53.130902373389340 -12.401198383318039 8.106762174639721
53.466495329673045 -13.086062538077428 7.538099739469827
53.803344836297484 -13.799574257601472 6.902571250097552
54.001419927394792 -14.570830895014614 6.335709871064345
54.102814926981608 -15.257911415092773 5.758748914318005
54.319056239575460 -15.920024319619534 5.009714112535203
54.152977537233618 -16.729425728423209 4.669811202266041
54.254062063925829 -17.256134820302549 4.110621043759084
54.369449211448668 -17.838298600880062 3.482009273154840
54.354068605849221 -18.382119587617407 2.826657788565948
54.285442980138832 -18.875912745586803 2.138412513308032
52.324327392719617 -12.761117163957065 8.744665124225781
52.594411468245653 -13.459504086345930 8.269218651205769
52.883852377658613 -14.165156599555807 7.713487883667460
53.211684811913855 -14.889185099417640 7.041291554781289
53.408288380167001 -15.593329108040127 6.459200544108395
53.561222943334926 -16.261877128857726 5.846825120571520
53.707918085087307 -16.807624056694642 5.259994333461792
44.732244564419226 17.629957897801145 -12.965007487649087
43.883330870068370 17.951524272284900 -13.343875902954547
44.197948497549000 18.253586736138775 -12.903715754198291
44.984411356269966 16.976014989727762 -13.251931195399003
44.035871540572295 17.401160469898922 -13.607441429141435
45.255999403450240 16.279550791578867 -13.525808647564618
44.274446178594360 16.745477662395093 -13.902274367357238
45.370614785764623 15.751781773607934 -13.820312155578163
44.512140044436670 16.086179781787401 -14.162849076099672
45.917998823319508 15.139457338850169 -13.817407818393063
44.784193091806230 15.463966293741317 -14.343143642539214
46.106600377878763 14.360875682974132 -14.120542608977651
45.038506135362681 14.782452582287263 -14.555144060504933
46.260666268475369 13.608001640893434 -14.404865266748875
45.164629381411189 14.005980007356065 -14.873664873705270
46.486471570609829 12.801894733668339 -14.631626713594436
45.144424734984973 13.204486882015017 -15.239336669440814
46.317371281803602 12.110876948077866 -15.017905770353703
45.322176221584222 12.393775554753748 -15.480181180090076
45.392212131741559 11.832263092975817 -15.641610927144519
44.602036565099183 18.955417990922438 -11.966887144893649
43.817907188203996 19.336087851606532 -12.277701218555071
44.040913942392628 19.581762816557124 -11.868299670018525
44.867893294168873 18.199926680253611 -12.397730375374088
44.011182361391398 18.812253278710653 -12.583174613968911
45.391477429914467 17.561320760245344 -12.504928182140766
45.458028509075362 17.171145586848869 -12.777625432603303
45.955718851522818 16.518776544575509 -12.868443793144596
46.163996056742661 15.701784182734876 -13.260865930134324
47.242611804136907 12.204062230740519 -14.418395366690969
46.002068044124790 11.531432714022161 -15.419059045181257
46.975651306574314 11.473140197002950 -14.875452441568115
46.979856809563259 10.623095665840891 -15.188509758848458
45.815830317486537 10.826780967975822 -15.766458224074757
46.827618016493140 10.121760533397469 -15.440177336493456
45.927233492383721 10.102587159684017 -15.937412502661239
46.351486639207359 9.611152559635272 -15.863515469810977
44.630912797264756 19.462766028481610 -11.400746597478228
43.835462597485289 19.958309066892102 -11.643996895690961
44.070532165765357 20.103864290603738 -11.256653968739561
45.217384798386675 18.817945239319492 -11.511067605811409
45.452739962734121 18.304082914124663 -11.795567897780936
45.640608864121823 17.801422306569002 -12.099049403062558
46.154514343486511 17.078685543945845 -12.244751996131217
47.686934071001311 8.757356553151388 -15.358895187520055
46.766952904428294 9.058351142069391 -15.790700780667889
47.375728505054276 8.351399409885238 -15.647155680676821
46.558341509167057 8.333947797667904 -16.099114802654391
46.795765210926675 7.889674374991301 -16.084283470640798
44.655591382592114 19.908183513657939 -10.800938849028618
43.866129849582009 20.456072580542529 -11.009123901155679
44.130013276947714 20.561399566275661 -10.528631843854846
45.271826857658247 19.309101029537036 -10.893963509968795
45.428383368830779 18.982366000703617 -11.121504409696445
45.994920209053369 18.307481907480014 -11.234679199481484
46.280182271658077 17.631120861205659 -11.638433074336541
47.852028489090920 7.273399217688784 -15.650965474145554
46.983610957383675 7.311095406299088 -16.122197061593926
47.328331805785780 6.788857394033693 -16.052790778333641
45.092516904942713 20.010052043476765 -10.092849328217946
44.389030137904115 20.652856045948305 -10.039104927290726
45.586105171429935 19.385062441472300 -10.369713605026952
46.052689863025478 18.743346696457795 -10.637788131325799
48.687596162478286 6.110904364696784 -15.417602642344415
48.004217860389524 6.455210102462996 -15.740879288966545
48.201771942971945 5.612928519955276 -15.797349927523687
47.093300900296313 5.619477869046817 -16.393384527291023
47.578044205774887 5.200767509159142 -16.206009842304724
45.101370724851456 20.484534108672165 -9.380897890911656
44.177526340567269 21.002001887194812 -9.726865390039503
44.361274341492049 21.124923817745717 -9.273652264181763
45.578217407296584 19.932534005029652 -9.577884170493375
46.072284937116223 19.409522230896375 -9.714978486246977
46.449951340509067 18.802046298389563 -10.066295194514208
48.646160105095241 4.503477719625664 -15.720425668465591
47.777496978173112 4.612101200153455 -16.179176483201161
48.026974878776990 4.105816734259003 -16.107831545121499
44.173996719136269 22.880604490499014 -6.621448281508167
43.377245261499773 23.300038684816190 -7.176547511935968
43.560489593320568 23.435341262881749 -6.556641747081297
44.583667669598462 22.216508371026670 -7.171368229917654
43.615863629507736 22.840330362627206 -7.607995371695481
44.880368910644911 21.618644055348522 -7.836651279597707
43.921745190812118 22.227605545867682 -8.171456312531243
45.060978968512849 21.025757985059009 -8.523532084598903
44.150321296594129 21.625772534380193 -8.824282051461376
45.962485575200759 20.356378013847760 -8.342313188580356
46.202405386883811 19.805604434100722 -8.937713284932883
48.961242131419461 3.473310131261024 -15.649782988743866
48.077493866378610 3.567708909292153 -16.138975324954949
48.345578037927076 3.059032133633411 -16.043676663353146
43.677835952989895 23.853349115918935 -4.961300055717670
42.863585419035942 24.286322387022491 -5.523434036299893
43.014101493255417 24.377318257766657 -4.767605228002430
44.187386746274093 23.262750408849740 -5.691089797410909
43.223525813950296 23.880209907710640 -6.040385561609896
44.698932388468037 22.738365878305711 -5.911010106465518
45.160706772044144 22.207463052027300 -6.150992434804175
45.517692305539327 21.572332543449619 -6.824346093956404
45.883469778526994 20.863166171442497 -7.485442743736593
49.580085891419856 2.451073728485565 -15.377227608799579
48.466598218562140 2.500056364876529 -16.018005781809023
48.731572538190598 1.914163075059706 -15.911042644062007
43.527875590343861 24.115140644741157 -3.822316836571740
42.711028055097543 24.607358445324753 -4.232313448627538
42.832238154275949 24.629372140507346 -3.541404535479620
44.123930412055678 23.643120544566386 -4.176298089795802
44.671397037892262 23.160079002523105 -4.474287149559556
45.193369058654163 22.543437934078213 -5.185988219469975
49.782370307843664 1.192440020912537 -15.309870919981268
48.672234946334235 1.345349192084317 -15.951471263733131
48.488134337348512 0.713833826791977 -16.068113674838944
43.329973662841240 24.321269341426394 -2.569268723920425
42.493788297709479 24.867779949400457 -3.004229203455948
42.557910459725221 24.870338797357274 -2.231568212932380
43.948697725225827 23.890390685648576 -3.016616543197998
44.552332918885632 23.425974651920296 -3.369754604143880
50.398127435670908 1.075007948776895 -14.922334811476516
49.325039470124167 0.549130891972440 -15.590225593650251
43.004282869500905 24.467739396138018 -1.330021041889699
42.198232974471225 25.100506585193163 -1.689807785885923
42.269600219921358 24.996133350533526 -0.999199739882683
43.752553642416224 23.911879487318622 -1.657607746973793
44.286668112258788 23.557233719521761 -2.269351068509318
50.405399681772863 -0.139786910873429 -14.930435629436321
49.378896735909464 -0.078793049652789 -15.557175677821059
49.643824969827691 -0.678675085762447 -15.381098985930278
42.676206243403726 24.589376398228968 -0.207782955521531
41.904714988448198 25.243582402852372 -0.454512079097334
41.945308617532113 25.152849108402339 0.160359927062396
43.423947622588756 24.074934843410070 -0.504476809337520
43.778437374689602 23.860284796998542 -0.930558845970969
44.482486341317127 23.349101647777008 -1.156563186312217
50.514081739173562 -1.461861340829305 -14.820351466966189
50.025103362756539 -1.024331232793110 -15.144316105395724
48.835406915562274 -1.752441693488835 -15.834915543351046
42.380590277664311 24.700927431597222 0.874717451596976
41.602748007063489 25.305211081701717 0.641080383833557
41.626925808823941 25.162579750417365 1.391615665147599
43.124929635861939 24.173867951553142 0.630601721703528
43.482087189694496 23.986455885913553 0.149025014499860
44.185904211133959 23.487701621735468 -0.176172658493627
51.034493377687525 -1.626528760804375 -14.473601206883146
49.682048749852626 -2.187898610442927 -15.294888097249505
42.433392695948889 24.470166573327312 1.901850945106916
41.702045237646615 24.978595076737246 2.167566140945244
43.167680188961228 24.039787237595846 1.352017036923292
43.895740658580841 23.565488377559646 0.799566765952472
51.455667869658555 -2.868015325922082 -14.103457286221182
50.737154945993630 -2.563595973987254 -14.612059551640741
49.820422960976238 -3.339853181903424 -15.106135222525452
42.073327830214836 24.501699829510223 2.808666893871104
41.301036788415246 25.133521710744695 2.631573301357173
41.303171157960413 24.919894333401121 3.328037588390414
42.831054795306919 23.999546306204842 2.534899662261422
43.221596980563071 23.825567187124548 2.064856533438284
43.928974390494496 23.363273436125191 1.823394755348002
50.124873936239730 -4.052990226314456 -14.841142836784359
42.072751940815841 24.154346988172577 3.751261667888834
41.292558478156579 24.648123461133487 3.990026380762338
42.854823684319548 23.729144079113311 3.204403411935252
43.590879252144141 23.340877014622858 2.674614065128923
50.855219555299222 -4.445277620130373 -14.318826876616150
51.765690392965446 -4.495689305383758 -13.692876166450670
50.184884171245464 -5.020993222647697 -14.656208612318309
41.627248111051792 24.135340931738220 4.572871872681723
40.906214231229200 24.753830519865168 4.437226483198108
40.859346327091565 24.468472335461080 5.051454534610827
42.366249292599015 23.622126034238875 4.399386554552093
42.909841062800687 23.364031159920629 3.934290553576536
43.599984830513861 22.993328182480333 3.440667658318110
50.567588120932200 -5.720506572607427 -14.280450708750354
41.539496621903524 23.730875675238011 5.366296803244355
40.819897250345129 24.092356776110368 5.744970879706370
42.274693893623258 23.349865897452872 5.016680026248723
42.958771591934557 22.964154418491695 4.641716727433751
43.636364052567231 22.594600072807317 4.207508009271201
51.303586595063720 -6.091492312288398 -13.729509894273091
52.130917947804917 -6.161491226759175 -13.155210900712595
50.613921322240124 -6.726308263550621 -14.061421094056149
41.519976839707596 23.301561880006986 6.108909277450574
40.807238342995490 23.667699234183040 6.453270025332580
42.207720165856408 22.929401326955119 5.736614187052638
42.928438347175309 22.563051981537132 5.328771787659428
43.640072715663678 22.189139115610107 4.874546581990939
50.791403467380931 -7.426823126120787 -13.791662121312978
41.462801467456067 22.888960997966972 6.762979707834837
40.798586907343115 23.200996917372727 7.117503346211469
42.139036652855388 22.510121549772535 6.428784991002654
42.868566959522461 22.096507223965254 6.058485128042999
43.695974663461932 21.621841379928192 5.636210907674669
51.337969292129046 -7.840528747287837 -13.326801357266014
52.190421206319364 -8.032550985604827 -12.677409483774689
50.554245608030634 -8.392805435716044 -13.691948969962105
41.369426871447303 22.488631222762702 7.394074101312235
40.845577599060611 22.772777843649784 7.628763052020789
42.080270892395184 22.055837965685328 7.148586384297196
42.748165146331417 21.654786622909967 6.791651889374515
43.488578425901125 21.212048450772706 6.393600346330983
44.189298877982843 20.775099638451646 6.060460645691162
52.974357985673336 -8.248705256765572 -12.007119232103962
51.255245746063842 -8.866042529099172 -13.086150083950152
41.173502054209294 22.256571726365351 7.870307579129776
41.170992483045360 21.796281660263368 8.378298826117305
41.867808417510744 21.634138952974233 7.886655654452136
42.608061287057559 21.177122723595776 7.521126661973344
43.367403073743453 20.701181722181904 7.125658088363830
44.077167863493806 20.323099774602944 6.675466344141243
51.372512793951564 -9.658989164898818 -12.760926492110539
41.739580342779824 20.972197551226344 8.615008247429593
41.080431938490548 21.244379340554101 8.996168836683838
42.445673079187259 20.633880636579789 8.240572133592451
43.188606134949126 20.108234066400353 7.859252475786310
44.051362301437152 19.675397577860505 7.436232544752888
51.929611734565761 -10.041584806631619 -12.243433219083819
52.750927922092515 -10.202190503179686 -11.554426790879356
51.126980795897282 -10.621328754801336 -12.605973647264259
41.615339861588375 20.521512183673572 9.224409705308972
41.047919314937111 20.766899426298714 9.491122426662940
42.235837747929374 20.095878005873974 8.944275925980605
42.978098343593160 19.600091434216850 8.582549260038251
43.748871461672323 19.126739893542450 8.218857833519117
44.457163040750032 18.707538266423612 7.871880741341359
53.458811476410510 -10.440096634650569 -10.891280871842488
51.797475963805773 -11.077928156632066 -11.953537969059079
41.388935103589247 20.254123226552021 9.681508059096792
41.434944230439235 19.846590449226817 9.998499394085577
41.934366431729387 19.692772962524497 9.624404871260898
42.711421229970590 19.163281736861720 9.323146365899190
43.501645835027460 18.571800563614925 8.984560591229368
44.354534059964742 18.095839174176163 8.568438854010237
51.952345423819786 -11.872934937388020 -11.545566397980387
41.731528809318469 19.274410479562878 10.157926509285032
41.699863560355979 18.718104010993606 10.638443762331843
42.374717874752179 18.611844188316145 10.105401077457550
43.194077352268387 18.080747565227668 9.731314049132099
43.996892295095797 17.579785483822192 9.374578990816376
44.797074167264675 17.070763861617021 9.032636402165625
52.405195463682936 -12.285852662426468 -11.016610267764442
53.068666915570816 -12.567686421609347 -10.326629689076643
51.499132151107503 -12.917852892179559 -11.440775816101459
42.190659799748829 17.903344388624959 10.795344680804265
41.642986691123703 18.113228981639256 11.096736382534081
42.901025328399243 17.503281933753438 10.502800494414396
43.666722916380493 17.014210547694503 10.160339062385116
44.442661948380533 16.533811635371332 9.789952368145762
45.147599735045056 16.140095215920304 9.447465449912857
53.646680634280003 -13.012345492481316 -9.572251095938221
51.815242619205392 -13.434642618273637 -10.938558863189545
41.954406864636780 17.554502641612014 11.234187320069319
41.981596276844790 17.058266923895001 11.563464958243353
42.518861035863125 16.993183319977959 11.183956264007840
43.316839903366620 16.444183978674161 10.912583009894112
44.100953549785714 15.920415807753310 10.582211147926053
44.961459766982202 15.401542684436322 10.138846288811518
54.119323748890324 -13.310440280887597 -8.931902150437747
52.424499057320780 -14.046577760645814 -10.115497515805245
42.255608638469894 16.520190621203380 11.728575920746220
42.199139253274687 15.908112282077120 12.173295606707141
42.872809091992089 15.861500217485231 11.704303805103143
43.732932369778162 15.336189135950690 11.312742907389932
44.504029186757187 14.802383477000239 10.981609103308172
45.341140691415482 14.268466594659062 10.637018128095477
53.031517606642275 -14.624261317326958 -9.244781799339842
42.667203151201925 15.111864496268655 12.345935439687823
42.140507967349272 15.285471766070705 12.606385138698750
43.340262552097762 14.702683908528918 12.076658374832057
44.105273533237209 14.195645306960875 11.752356489024598
44.844297600843426 13.630642721832825 11.421765111638164
45.657321106420923 13.104024340610938 11.049855784083976
53.357517604790900 -15.094393409369797 -8.648840026090683
42.422174085674527 14.707511364124136 12.757595040370923
42.394282965481040 14.145807996110808 13.081632946164643
42.957857051168560 14.122273932322036 12.697088587928615
43.665533740339860 13.606257323996417 12.444959682425033
44.437114986835830 12.984895587499599 12.148402119418693
45.160576543134887 12.407944930225920 11.861063097787484
45.933802665826349 11.830005838080003 11.539778034643662
53.341543476067059 -15.614522910819730 -8.318496629440650
53.718763908549235 -15.894415422102812 -7.670661386259971
52.249337489900128 -16.304173184775006 -8.920573111378157
42.688499149228882 13.585923416998753 13.177295415029775
42.652221796258658 12.970358921760527 13.496101006634300
43.214725020595395 12.966335271287340 13.107496093083304
43.959797251899190 12.329238969707079 12.803324096821264
44.677010877147026 11.729759054568113 12.559960591674098
45.412352522947501 11.196454946747483 12.260564362062363
46.184387166171781 10.645525083840619 11.924397584990388
54.050974518388344 -16.331561422771106 -6.858618224184993
52.441437873123498 -16.819527871761807 -8.316624936016275
42.930274885866119 12.326380119972130 13.576949797416717
42.869541997002059 11.692799051084688 13.817485368012063
43.411662421976132 11.698730485575865 13.500914225671190
44.148319535804333 11.114525288580856 13.217376326154394
44.874685899541134 10.529261039948871 12.922359445712004
45.602875782542569 9.959220281811465 12.614953715309051
46.349262824426546 9.395329231131372 12.273692194005205
54.213514010315208 -16.869907727055590 -6.101560666363608
52.677282223934519 -17.379739394114690 -7.615354044761856
43.102467226923281 11.091053144022862 13.940911755394584
43.052087891017841 10.455020590187623 14.173501074145364
43.627009621419965 10.526030784767332 13.806036747623651
44.326534154646872 9.923391232041801 13.542328534339184
45.028018254131496 9.315496396697981 13.266495632855529
45.742643128472629 8.708228373642900 12.976900110042124
46.511380701740428 8.093150808908954 12.551811777086789
47.081803147247534 7.251791742344221 12.341831575297388
54.305820559646840 -17.325454584677608 -5.402917937960169
52.884397490581655 -17.914762452584075 -6.856228594992348
43.294645838516573 9.898510494692392 14.247203418910305
43.199170313586841 9.189036527512556 14.477227912848925
43.726049614049458 9.435343118841448 14.088746424182931
44.317596484381255 8.670907405602311 13.992596532017622
45.062231956117131 8.006824062467770 13.643402606338077
45.742769857212636 7.358921993829510 13.320116933479241
46.438850649533329 6.712396882915357 12.952880751597288
47.161549100957750 6.096577539074595 12.584818815682336
47.698858021680152 5.296032041851378 12.380879724004970
54.303793119614561 -17.835087941079095 -4.672469475485418
53.029138455646745 -18.439948730788231 -6.018840570115902
43.578238890808834 8.560420001313545 14.455761652735319
43.927611391988172 7.877930447264580 14.423211666309905
43.851184736627900 7.212155186317380 14.618795749534391
44.408031528869166 7.334965933590069 14.242634210296583
45.074563082169945 6.726404320089849 13.949767859672567
45.726276354692267 6.078786034403391 13.634305929520028
46.383529340863788 5.403821668687499 13.279434817831582
47.012658499009461 4.719436443150286 12.989647071063162
47.679925281565154 4.087034116638623 12.572216599932061
48.207131604513961 3.250676310270126 12.300020196105471
54.273619055404723 -18.302838545509143 -3.910821696185997
53.081000826478558 -18.955057379252679 -5.286030750116001
44.022602837676537 6.688189335479272 14.620517405830711
43.915997339063594 5.996394313348183 14.841270421840219
44.511929956604973 6.279838790485835 14.427835365538424
44.998405788256676 5.421647518631788 14.305224985838199
45.673499887881242 4.765040509876926 13.926968662336360
46.286816257504938 4.075661151171274 13.619824484018693
46.870208273725929 3.391481757261571 13.299868193372856
47.478362954074726 2.715138376843834 12.922932704350398
48.137753646574019 2.064721708932929 12.485325501573499
48.666999088750849 1.108238965846372 12.137817449495014
49.166540428150633 0.396349039187149 11.761233541233034
54.231676540957992 -18.779079580246918 -3.024541074422579
53.045462320610696 -19.523720006397149 -4.475132926057498
44.262983897092063 5.281257732572814 14.786445366103722
44.588020188219240 4.615225025574746 14.668110703155357
44.533640804920367 3.858182506275870 14.781445128044673
45.032485233182058 4.177700148849451 14.454305617223682
45.513520265578052 3.382154076487141 14.236374626945116
46.123733289048396 2.774085391086829 13.883925401128096
46.635390640042601 2.076648017350702 13.572246351785138
47.166600135439921 1.418317912401926 13.247938121884459
47.670856850167951 0.637653560401846 12.927256055897168
48.311737896735110 -0.125404266767871 12.446005329156669
49.000536596328196 -0.770059724425899 11.854805514242049
49.431915701122193 -1.745661562547596 11.447156952411985
49.917399305078668 -2.407953392995511 11.122236601650084
54.721000749286688 -18.492015572104638 -1.930811014804084
53.887124123174495 -19.468950598445591 -2.373646683988262
52.792306919066881 -20.207476354238036 -3.726865110381139
44.790799416188690 3.221241543151661 14.685763168990867
44.980559438164867 2.547688350549701 14.550971242165751
44.863091452448444 1.844857806345667 14.651051683493144
45.456346490508871 2.181064704910242 14.296752972526132
45.855883568606153 1.577769349273968 14.053103285285548
46.272474615519293 0.901350377734439 13.817376431100525
46.684732179428643 0.101980602405960 13.503151384328941
47.123367987672303 -0.796382737782984 13.178662188077155
47.821227317545329 -1.447455817884420 12.659410872209250
48.435340663731068 -2.160020230375021 12.197272826201761
48.999131956507298 -2.917154468277393 11.720813847328557
49.823479811920187 -3.606698893503157 11.218147957894530
50.401014878382526 -4.431897925528149 10.779788055545865
54.340534144087869 -19.178644359846430 -1.254560207968178
53.511277048690658 -20.068450272782744 -1.931271689451256
52.997073386234625 -20.412786753829522 -2.731415483468821
45.085476081051418 1.192878218345856 14.518562739291813
45.462012857765124 0.435743564128432 14.286206506052121
45.820345890381468 -0.303183592222276 14.007930513222421
46.208610490206596 -1.029231571675567 13.763052675192299
46.383213575859017 -1.707636178420074 13.469609798628547
46.182769907020138 -2.435881102198828 13.531454439345289
46.843168405498560 -2.076913338962907 13.141871821629564
47.344494257823570 -2.680624770963781 12.761117228435285
47.811376781213916 -3.411022041161088 12.400904130252128
48.364666900400792 -4.302138013999171 11.975961338129245
49.256557431989556 -4.982315415802664 11.472103118718682
50.266372320584743 -5.663610322690786 10.884611181663441
50.809572564212367 -6.437916529136213 10.405508748481919
54.117539194234219 -19.560260148735132 -0.114258967774976
53.211904807481417 -20.548337648312664 -1.212546773264759
46.347947531893411 -3.060977629419540 13.339396224119621
46.741315742666544 -3.803940449475383 12.979496089199268
47.148938298801930 -4.533579656322420 12.535985321895037
47.408586378782971 -5.173245607444702 12.266816934721401
47.113866613672656 -5.943031826083734 12.401925873424286
48.073554730353166 -5.595200016008268 11.986537948386765
48.782898794353912 -6.353632029712999 11.651625171286716
49.866196071215597 -6.981476402496919 11.070707835719503
50.725098277390529 -7.616148111885895 10.524350611139585
54.358561649067056 -19.193081169841630 0.832656015987938
53.571720030754776 -20.206342627686237 0.554905702787072
53.038648297592005 -20.822597587320136 -0.204367237616124
47.498659118691791 -6.601614639438941 12.224540130524748
47.954317284441110 -7.192043426571860 12.069717966586678
47.767807067990177 -7.924958996713331 12.111237232015990
48.704859127354688 -7.585481052348060 11.677099545536683
49.463875609256220 -8.355442858491756 11.288696202324157
50.591611564965994 -8.916969222997938 10.568812228780839
51.232452794871719 -9.768037009869522 10.122885035810784
53.670488408496034 -19.875834407265305 1.579133411273627
52.963131114738687 -20.852739750656017 0.938549026180943
52.777144473345501 -21.102169596209585 0.361133572321894
48.183046054291047 -8.569437092555315 11.893577608364996
48.554313539313576 -9.226109656630141 11.648861031589755
48.261645103700943 -9.939993965575406 11.709876374283276
49.288021850849859 -9.567538209874048 11.326329586944949
49.954169569642652 -10.386051835205459 10.857036204869114
51.072703687717372 -10.987397935086538 10.110669621441833
51.614518318203892 -11.838483718294803 9.573180580713469
53.585961211488268 -17.625255001020385 4.928145409952421
53.765914803020912 -18.207327717991557 4.117595285165601
53.813087277257075 -18.840200226748710 3.402748856293546
53.753660709079384 -19.421046994135484 2.637992102984718
52.942572623610161 -20.520647771539672 2.439060360712720
52.166933812466922 -21.570264800979935 1.564582175844871
48.676425561987756 -10.555774152534740 11.517052822018972
49.069969847511032 -11.194164264699412 11.250141545228610
48.790574205765886 -11.925907022572224 11.327314636667799
49.719194487292683 -11.574771063681812 10.842254564940159
50.352124445564328 -12.360004902785587 10.304349970794814
51.286184530065839 -12.930963127988736 9.573315321924575
51.611203447026909 -13.777893456170634 9.070318197358578
51.963330363914281 -14.549912233559164 8.459768116160278
52.242757391516093 -15.291292502047771 7.839941232956030
52.550607759902157 -15.975930040976849 7.199618399456090
52.763918368600926 -16.682331996551202 6.580478678634007
52.967144080926126 -17.438240099972241 5.865910051409315
52.828018129072071 -18.297247951258708 5.461148927352713
53.078717585047251 -18.693739007684275 4.790142998083278
53.310544250844089 -19.069904892302130 4.059771514674893
52.983666459364954 -20.014631666520724 3.448346832321271
52.396867888992801 -20.947207839706138 3.015776152357827
52.019477705579135 -21.517565574819539 2.443761808572957
49.117807965206303 -12.543490535927603 11.049270631855029
49.424467750516222 -13.140719828452674 10.746373755191833
49.144325134682994 -13.829925636992598 10.744829501667642
50.092609795429283 -13.515019600847593 10.201229510950386
50.621734572619104 -14.110839219346683 9.747130571519859
50.952222499478964 -14.913935009323527 9.213883386432606
51.257982207107091 -15.658731419789987 8.664157877826351
51.522972527052779 -16.479633837341851 7.975217528665786
52.012975409004014 -16.919800756235425 7.249374773949752
51.950304713749269 -17.790051265206298 6.851222504677157
52.153306954769796 -18.530472672673266 6.109532541108051
52.366727744787575 -19.127198410691232 5.451829710784475
52.573418677565918 -19.729754130697092 4.568508472287260
52.326864778871247 -20.478013120113737 4.051438431459600
52.195880613835300 -20.919880535537672 3.545043136490425
49.441786054801661 -14.524778737191761 10.368589354218585
49.909785541878939 -15.234698950824797 9.874133709662285
50.308434559755334 -15.941249668685444 9.297092203227921
50.571123152065532 -16.670725606250379 8.764924990900514
50.760111402056495 -17.227880960126615 8.307765345328132
50.432128300010454 -17.852470985702947 8.254403475446319
51.203982975013346 -17.579238352926193 7.713286313294158
51.041572490837936 -18.336707151601573 7.424434587961762
51.261026710556415 -18.845746108299210 6.898061183706156
51.500307523960558 -19.510239003687005 6.186432612475183
51.753569279263559 -20.077356720058109 5.376794465761789
51.896784093268700 -20.532051932477351 4.701093748389652
50.536338750321384 -18.322092082248286 7.920897835715944
42.076586811310392 19.880807672926462 -13.117884825747861
41.223753089440748 20.177730111754713 -13.482253165283527
41.476358649173491 20.456590454185243 -13.065267793323436
42.362568073310911 19.194374488850197 -13.489944790044280
41.425384958651620 19.646167537035780 -13.763137880716238
42.482415565625161 18.626938564240952 -13.805787531041688
41.648363854253702 18.974553698751702 -14.075974397617248
43.025250041884036 17.964174258134168 -13.918898826595324
41.891239209483118 18.321225127088621 -14.348714818074340
43.285991701677318 17.176117935580343 -14.259481532202615
42.213056752296986 17.610813337482188 -14.619973876167387
43.500065811305355 16.486484073133258 -14.536914326175349
42.405526872890363 16.890826890037410 -14.908056145662275
43.742104072598949 15.821319224268631 -14.764254617236110
42.606314123555428 16.153615743907256 -15.202711048481650
43.914188432518841 15.140330507630859 -15.021609477357895
42.773083600887162 15.442731670078816 -15.476131447998135
44.016183539179380 14.389374778699262 -15.334347865438790
42.891371206840148 14.710826104998802 -15.764228211269568
44.085609742219361 13.637631209607875 -15.626911296019959
42.725533701822933 13.877433861857396 -16.211451045120786
43.993442904963921 13.044460739836799 -15.924939651124097
42.960860508479200 13.102260641598367 -16.397802326537736
43.250042692044275 12.603829057342288 -16.456516163917314
41.771932605634461 21.198289562427245 -12.194654159302900
40.982431372223580 21.497517941298803 -12.486512211650220
41.194500398144612 21.758122545412860 -12.072101611395601
42.159660302856445 20.416820425333402 -12.628199272532697
41.264153108228861 20.979795252175478 -12.768215508742109
42.641433001723151 19.946187273810590 -12.670660092483688
43.115907588043896 19.396219664052659 -12.789207096835439
43.328449086112606 18.616032306993009 -13.240996299695228
44.164782792410634 12.527438522130401 -16.035373695105456
44.994983423717919 11.223993441718351 -16.067105944482204
43.914658234306550 11.602532702199158 -16.487594423089281
44.598202837754890 10.562978147248742 -16.475737139337127
43.615625896443213 10.698751158046106 -16.896991759232225
43.668490382117717 10.089200935861356 -17.054764947004699
41.785354519864221 21.755300440986812 -11.553825945594756
40.983984344352990 22.164281768814849 -11.799035265439136
41.200197596457414 22.334096328208194 -11.415846699382325
42.409942436833248 21.106993310754341 -11.714835755787725
42.587424876481329 20.689681259440771 -12.031450051301158
43.204585137529186 20.002446474246142 -12.201257622938687
44.444468354003824 9.891091950827072 -16.753522104425222
45.476959270643135 8.898555289595070 -16.503509490121502
44.633268817621428 9.148019464926049 -16.856832086258390
44.325734968698740 8.440048756921797 -17.181421686945200
41.855434301601498 22.279108920465873 -10.819493687622726
40.992717228620684 22.784286240126733 -11.060511943767629
41.238404856487790 22.967307899882147 -10.563615357073873
42.423475986727873 21.647401577382297 -11.031225305510436
42.615377434748936 21.235250032474426 -11.371556034918992
43.233266702984928 20.602382089900360 -11.520170452505583
45.074599020826696 8.163478405706424 -16.888568284212674
46.082882704028236 7.400287720642553 -16.561243465422230
45.245396794531921 7.495088182265324 -16.946386924823667
45.280906237101846 6.873379907486056 -17.064110614723653
41.823952722681959 22.824459804092420 -9.985587459358319
41.015029270244185 23.351046771208473 -10.207274771548786
41.225849438270508 23.503712894178268 -9.697807933177728
42.404216277320501 22.184219664969408 -10.272921585473512
42.721782546884114 21.728353523150986 -10.544085240758303
43.226321494842061 21.073501692875130 -10.916747391222334
46.592904989736176 6.112002364137803 -16.558190474532701
45.678182721553796 6.327772277971444 -16.977257209935878
46.069681909113513 5.640577927674338 -16.904103380358144
45.422218883642451 5.701028628329366 -17.202663135101460
45.053754702816057 5.184217916940335 -17.444781215149355
41.898133556362417 23.439669943961032 -8.965885553764959
41.026907321332089 23.888298685230112 -9.311101487857551
41.204871446237881 24.079644733625905 -8.782820429397134
42.554127913491186 22.678403589703393 -9.326534939148855
42.753674372655780 22.229840285590026 -9.744924675746807
42.965726715244685 21.785469252944015 -10.118147814685436
43.610332176741345 21.192639433895216 -10.230988190247194
46.807211421044066 4.695099260830842 -16.669209781143696
46.072673887550820 4.854242316401914 -17.008431915699653
45.575708871804189 4.134989842625242 -17.324975391872776
41.825556144453344 24.026889752276094 -7.974570824241637
40.977259812098119 24.466807855843022 -8.344137862366747
41.183781140728193 24.604879524053850 -7.683911121627532
42.754404038402662 23.372375154245617 -7.910184855303587
42.970458697584142 22.816257115174412 -8.557242760603806
43.276915727134899 22.218815464103109 -9.090480032299197
43.601542718314029 21.580527724385874 -9.593359826844555
47.216059679712920 3.626738186390525 -16.585917981524275
46.505708971625822 3.814889844199127 -16.914329931047511
45.913601716422484 3.036460359123667 -17.269093434717526
41.248916218861211 25.123359970757598 -6.102481767839893
40.554289494728287 25.419710540475613 -6.582711465313027
40.641563639001539 25.532253877939521 -5.948177378354219
42.042666821632395 24.457238988581597 -6.608256716397513
40.899380736140543 25.028633072842347 -7.123923371109758
42.805030228806345 23.773192974810076 -7.085287873755679
47.523337160410847 2.529495756655229 -16.518658860508886
46.780491472469663 2.673310263059721 -16.883554511974857
46.230214995122090 1.933946956179661 -17.194847746586962
41.218271688405366 25.419015551905257 -4.984280257113387
40.387857238165068 25.827035799369188 -5.470207395393790
40.550744816963928 25.916781378806036 -4.770187226343492
42.171496814299410 24.780045916667707 -5.155699793809696
47.704174739302758 1.382196118704583 -16.483088368088922
47.113904131826629 1.589852241717961 -16.780621308483823
46.392095338328964 0.835150265969057 -17.165129407521729
40.643716287951420 26.111666300384087 -2.993889329297863
39.910316710524569 26.594208235037456 -3.451869726175405
39.971416703720607 26.587806990615956 -2.757889331292760
41.072006657786723 25.715750109080439 -3.925073249850515
40.221816846827018 26.249286304003604 -4.128458423206201
42.025725389298032 25.079760584061500 -3.930239440874845
47.703277980543305 0.096985243756279 -16.510354641948393
47.073192333309343 0.417909892911234 -16.829286314245063
46.275943980614471 -0.249671427799242 -17.225717113008312
40.452234232122571 26.295709317329631 -1.814538924494088
39.658660988066515 26.861756515801513 -2.254525324037284
39.689086806161342 26.776147482000411 -1.485449618781510
41.072798208615154 25.888377817236950 -2.212703639954266
41.703624289986003 25.419644526430243 -2.656071730680988
48.320535130704386 -0.053616682862158 -16.163956766020000
46.952795778362550 -0.608846629534539 -16.880948851958959
40.145130507952729 26.464162215935481 -0.549491073614074
39.327412133383966 27.017459254003377 -0.952900751112006
39.377657395033850 26.958167474306343 -0.181230392162941
40.777969749646573 26.053108192018076 -0.996389705966499
41.469288944377809 25.613632771167136 -1.358830187748485
48.654435001946631 -1.282230735911732 -15.943759027836512
47.996489496030591 -0.967652780198438 -16.326403782410644
47.008177261132957 -1.753135844305184 -16.804666395030861
39.821915223936514 26.635219445040569 0.643744292525893
39.027123358455448 27.191175954762034 0.343048638841468
39.023227335465066 27.065966079602653 0.988918241002351
40.503273014027727 26.205204623597723 0.222192848561717
41.152764997289786 25.761317320501952 -0.156076732022608
47.288461652268722 -2.471340066226431 -16.620261786860532
39.366471612632317 26.694655858836335 1.678281830945352
38.616726031391842 27.179922838934797 1.493414670108342
38.628918299813940 27.019775068493082 2.231879307826413
40.230551036161742 26.202642542903810 1.481694848169012
40.802460628974139 25.855473512932534 0.894410239712176
48.096917012244980 -2.831833277850286 -16.162777014835473
49.152241264729895 -2.912516043598321 -15.557362904404135
47.495003247217049 -3.420942422399415 -16.420380027275666
39.459808957920437 26.388900535882300 2.733584187697241
38.630226029534732 26.836564611376780 2.972073636954885
40.100949490065993 26.138582669978526 2.140497771943561
40.899876990488927 25.613872595602977 1.948754635577466
47.857701369670224 -4.129404772232041 -16.137867389846498
39.019059858207136 26.400433406785670 3.665393914413497
38.219273561876690 26.966243634809725 3.489846152090595
38.222497283772213 26.688499229236921 4.217816240068013
39.873395402779394 25.908952783238814 3.444876135831321
40.513230820617707 25.637201163759773 2.892878861298096
48.573328990181864 -4.529943719878380 -15.692473411334582
49.563606923131566 -4.625947666112880 -15.098487457275024
